ply
format ascii 1.0
element vertex 1220
property float x
property float y
property float z
property uint8 red
property uint8 green
property uint8 blue
end_header
1.558940 3.868646 -2.763181 148 144 138
-1.411657 4.804141 -1.525692 230 191 143
1.367366 3.744069 -2.914110 0 0 0
-1.449784 4.823965 -1.268107 214 173 124
1.265313 3.844362 -3.080214 161 145 131
-1.449784 4.823965 -1.268107 214 173 124
0.684921 2.766054 -4.471930 190 165 132
0.148604 3.881308 -3.320221 188 168 148
0.850907 4.027564 -2.442377 91 110 119
-0.304079 4.490979 -1.731926 33 45 51
0.842595 3.502733 -3.398952 108 127 162
0.336462 4.190228 -2.237362 110 120 125
2.826933 2.972835 -4.104402 203 170 120
0.528719 3.886632 -2.745630 79 95 106
-0.128118 3.494061 -1.912272 99 108 112
0.543775 3.355635 -3.555935 207 190 169
-0.119532 3.108499 -3.745287 225 208 183
1.887143 6.270957 -2.633583 37 48 55
0.967588 3.747876 -2.953152 81 102 121
1.167861 3.867091 -2.540104 50 63 65
2.399346 2.638935 -4.568670 199 175 138
0.566166 3.009961 -0.719320 81 88 90
1.614012 2.542817 -1.820891 43 61 73
1.473755 2.303685 -1.571582 85 96 94
-1.441852 3.308317 -3.786120 235 206 177
-4.985606 3.325055 -3.535964 169 148 120
-1.634313 4.638231 -1.866292 240 204 164
3.160736 3.730829 -2.886695 186 154 113
-1.112303 4.411324 -2.314855 199 161 118
0.211739 2.877282 -4.367658 183 162 131
-1.161786 4.706831 -1.683198 201 161 116
2.973037 2.561702 -4.527799 214 191 151
-1.279163 4.848632 -1.437730 209 172 122
2.416144 2.676050 -4.446115 213 192 157
-1.061703 4.769475 -1.609775 208 173 127
2.486724 3.549702 -3.299735 218 191 149
-1.171792 4.787742 -1.466953 232 202 153
2.071556 2.900877 -4.322025 219 192 160
-1.028828 4.700639 -1.627781 233 194 146
1.366097 3.064126 -4.277950 189 159 119
-0.371001 4.468727 -1.792059 86 94 100
0.634822 2.743623 -4.509000 189 164 129
-0.140930 3.514955 -2.011189 110 120 123
1.200933 3.967043 -2.468995 41 60 70
2.911573 0.377671 -1.724479 108 127 162
-0.673707 5.403520 -0.624964 236 199 157
1.047281 4.099458 -2.430174 81 104 108
0.750471 5.320301 -2.174430 89 99 103
0.966881 3.963817 -2.534681 40 60 73
0.095904 4.484840 -1.657909 59 72 80
0.662379 3.878101 -2.739499 76 100 115
0.190428 4.548469 -1.576741 30 47 62
3.247516 3.234882 -3.621618 194 163 122
1.912720 5.021912 -2.744541 113 124 131
2.840574 2.641543 -4.377662 193 165 127
0.061219 3.263275 -1.683387 103 116 124
2.068131 2.646766 -4.473557 193 166 128
1.372015 4.003128 -2.545659 35 56 67
2.225547 3.828185 -2.990470 224 197 156
1.710488 5.270214 -2.172483 202 187 185
1.708195 4.134593 -2.511246 87 75 56
2.017001 5.828197 0.547625 201 163 112
0.832562 3.791623 -2.908769 79 97 112
2.790937 6.249104 1.392614 184 139 93
0.773985 3.726804 -2.920673 84 106 118
1.678720 2.549236 -1.976367 89 108 118
0.498539 4.009194 -2.425338 0 0 0
-0.434148 4.426729 -1.875812 46 56 65
3.082140 3.475176 -3.455915 225 193 152
6.624269 7.140593 3.955012 177 128 67
0.374543 2.861946 -4.437013 185 158 124
0.135684 4.287764 -2.031284 39 48 53
3.288536 3.173857 -3.698125 194 165 124
1.290794 3.523983 -3.541412 228 206 169
1.228890 6.006535 -2.146751 33 42 52
0.167980 3.607154 -3.339020 197 179 156
0.478824 4.295764 -2.003094 39 49 56
1.856063 2.962080 -4.216957 195 169 131
1.441353 2.910844 -4.283206 190 164 132
0.698158 5.672154 -0.010557 228 185 138
1.037459 3.257354 -3.802396 197 168 131
0.235742 4.372025 -3.276041 108 121 131
0.672446 3.827825 -2.901368 92 110 122
-0.636147 4.310704 -2.030281 131 203 134
0.562529 3.635043 -2.556207 91 109 121
-0.763328 4.945868 -1.766528 56 81 90
0.676697 4.011022 -2.494887 40 50 59
-3.260379 3.353653 -3.724328 184 162 129
0.348137 4.519646 -1.542714 96 110 125
2.920004 2.653121 -4.422847 214 200 166
1.045523 4.086566 -2.458375 32 49 56
-3.270675 4.803144 -1.400106 204 180 139
1.111512 3.977207 -2.483583 48 59 63
-3.284487 4.815241 -1.401850 204 180 139
-2.256762 4.049777 -2.696011 231 197 163
0.110293 3.057393 -4.341436 188 157 121
-1.143110 3.580325 -3.437456 223 194 160
0.873385 3.909336 -2.628158 40 60 72
-0.972630 4.816130 -1.612679 238 200 150
0.851415 3.949048 -2.641412 40 60 72
-0.963576 4.843841 -1.616508 238 200 150
3.063489 2.899537 -4.103376 193 163 123
-0.524955 4.380139 -1.979067 75 120 181
0.128381 3.519855 -3.110076 208 192 171
-0.201541 3.872361 -1.682095 17 28 32
2.574684 3.057026 -3.991667 201 177 139
0.472603 4.006292 -2.146177 28 39 44
2.264157 3.009024 -4.292747 192 165 130
0.888566 5.311292 -1.990520 37 49 61
1.700976 3.483259 -3.428547 234 210 173
1.030366 3.277099 -3.973966 195 166 129
0.600885 3.406720 -3.634651 206 185 156
1.082698 3.942641 -2.646681 44 63 65
0.857630 4.115156 -2.366105 46 66 74
1.243357 4.005593 -2.386286 84 106 116
0.654054 3.858340 -2.761291 20 41 57
1.618738 4.027586 -2.463561 123 148 165
-3.277949 4.610048 -1.670462 202 170 131
0.065545 1.896431 -1.018492 148 149 139
2.925322 2.683763 -4.382627 175 158 121
0.186874 1.805554 -1.150556 94 101 99
1.780498 3.981827 -2.584814 165 148 118
5.177186 5.954719 -1.603958 105 111 110
2.901595 2.886117 -4.194276 198 177 137
-2.207963 3.995033 -2.677979 226 192 156
2.779591 2.980237 -4.043409 222 195 165
-0.798373 3.902659 -3.049094 221 194 162
2.650930 3.035056 -4.021198 199 174 139
2.262920 2.744243 -4.551421 196 173 138
-1.140801 4.444232 -2.260668 212 171 135
2.117449 3.231809 -3.861821 233 209 176
-0.519323 4.001183 -2.819908 208 176 143
2.246291 4.026497 -2.728908 210 172 126
-0.887597 4.505968 -1.857491 167 117 59
1.723046 2.720861 -4.515293 220 196 160
1.885015 3.984405 -2.817185 194 165 118
-0.138875 3.823238 -1.654396 111 123 131
1.489964 3.190947 -3.968261 224 198 164
-0.432714 5.274885 -0.577140 202 162 109
1.538662 3.907173 -2.969769 212 184 143
1.295986 4.676956 -2.698596 125 140 143
1.450059 3.795175 -2.835549 10 40 77
0.408833 4.356131 -1.889769 15 33 39
0.970323 3.664575 -2.942531 84 105 123
0.340325 2.979659 -4.358478 211 186 152
1.650743 4.977746 -2.736926 111 124 132
3.510826 3.650284 -3.060215 183 149 102
0.725623 5.461576 -0.215332 229 191 142
2.756852 2.644538 -4.552934 187 157 115
3.100790 5.956921 1.069945 218 181 129
1.704149 3.984542 -2.410773 92 73 51
3.378882 5.888789 0.937568 202 162 115
2.407830 3.753278 -2.971885 204 176 134
-1.108415 4.235366 -2.193604 108 111 114
0.340387 4.011228 -2.564738 37 57 66
3.077044 3.450972 -3.463882 198 166 125
0.420341 4.523053 -2.626248 112 125 135
2.743726 3.587495 -3.210737 223 195 154
4.386961 5.297666 -0.007568 209 177 143
2.585254 3.544524 -3.580776 198 175 133
1.105098 3.568419 -3.166469 113 144 168
0.720602 3.521809 -3.740428 199 174 138
0.899245 3.915274 -2.635886 46 59 66
1.197184 4.047861 -2.414314 87 105 118
0.615336 3.583445 -3.593335 96 125 151
0.355475 4.284836 -2.032442 27 40 41
0.755839 4.077950 -2.369051 68 89 100
3.258908 3.246557 -3.621175 221 190 148
0.017628 4.496735 -1.708430 32 41 48
3.222709 3.277954 -3.607931 223 193 146
0.097887 4.434345 -1.786736 28 38 43
3.110169 3.663954 -3.026659 180 151 104
0.423826 4.424726 -1.796358 31 48 63
3.000691 3.671860 -3.048836 185 157 118
2.305202 4.000727 -2.667418 218 189 146
2.508780 3.285240 -1.502810 236 222 193
0.710105 3.945891 -2.767577 90 110 125
-2.386524 4.212055 -2.468859 210 172 128
0.659357 3.787532 -2.860750 38 58 73
0.658818 3.792045 -2.866164 38 58 73
-0.971789 2.396861 -2.324711 106 120 127
0.495004 3.833133 -2.667782 56 77 91
0.519964 4.061633 -2.436226 42 53 57
0.324359 4.088618 -2.262354 112 129 137
2.799606 7.651172 -3.218474 28 42 47
1.591157 3.858057 -2.437291 34 47 61
0.635284 4.059822 -2.387167 42 55 64
1.445191 3.800928 -2.840652 0 0 0
0.074705 4.599253 -1.201831 27 36 50
3.200599 3.334591 -3.399916 222 199 158
0.508597 4.599775 -1.554433 171 146 128
3.064919 3.357357 -3.499777 229 198 158
1.238016 3.964505 -2.488380 43 59 67
2.460145 2.774452 -4.479908 200 165 115
1.365669 5.763773 0.674999 206 165 117
3.117774 3.386418 -3.440002 228 189 133
-1.227183 4.332599 -2.376966 230 196 159
-0.619453 3.930354 -2.820431 217 193 159
-1.482070 4.812191 -1.270761 230 190 140
2.798385 2.654916 -4.500483 214 189 147
0.187363 4.139435 -2.272450 107 117 119
0.410700 3.975242 -2.606543 44 68 82
3.318764 3.193471 -3.678628 198 167 125
1.045824 3.561648 -3.598701 228 203 167
1.040444 4.044729 -2.372063 109 122 132
0.674285 3.889567 -2.336682 39 62 71
2.050390 5.754801 0.549903 199 162 110
-0.334204 4.438103 -1.719718 73 95 104
2.982594 3.453095 -3.357074 230 201 160
2.872246 6.240563 1.445908 192 152 105
1.429237 3.590409 -3.384117 238 209 168
-1.598095 3.395549 -3.665791 208 182 149
3.385113 3.417949 -3.334223 224 197 158
-2.138443 4.395353 -2.088525 242 209 167
3.170279 3.387860 -3.444720 224 195 156
-2.088568 4.542453 -1.701408 232 194 149
2.906841 2.994305 -4.182718 200 178 144
-1.785951 4.587192 -1.821397 230 193 145
2.330626 3.679721 -3.153034 219 189 144
1.547252 3.623856 -3.317952 230 200 162
-0.602337 3.916194 -2.893962 242 214 180
1.362669 3.784271 -2.986641 187 160 126
-1.420340 4.794765 -1.268237 231 192 146
0.599467 4.115986 -2.202083 73 95 104
0.294312 4.119029 -2.356840 106 121 125
-0.365079 4.302356 -1.991928 53 87 92
-0.150909 2.816364 -2.351357 0 0 0
2.862738 3.470004 -3.386200 220 185 134
0.378040 5.108313 -1.825394 23 32 38
2.823447 2.943441 -4.163930 226 202 156
-1.848585 0.626634 -1.271790 13 28 30
2.292953 3.903170 -2.860585 204 168 122
0.692277 4.218602 -2.124164 19 38 43
2.343179 3.284643 -3.748769 233 210 175
2.431734 5.811675 -3.050168 3 20 26
-4.410646 4.044761 -2.546204 177 150 114
1.380111 3.974523 -2.554881 49 69 79
1.522992 2.203196 -1.523050 81 102 102
1.283574 5.786937 0.586071 208 169 119
2.858635 2.702410 -4.348476 195 179 145
3.100807 5.982482 1.098377 215 179 127
3.208236 3.707155 -2.893015 187 153 108
2.194458 7.067110 -3.217029 41 54 58
2.265714 2.776077 -4.654202 224 203 170
1.486301 4.062721 -2.435364 100 123 143
1.662443 3.200586 -3.932621 205 180 146
-1.054453 4.758197 -1.624307 209 170 118
2.857742 3.098343 -3.967115 229 208 171
-1.925470 4.532451 -1.820637 209 170 124
2.435158 3.811486 -3.019377 207 179 138
0.176287 4.187263 -2.220555 37 54 60
-1.461210 1.490986 -1.157143 0 0 0
-0.190683 4.482540 -1.785500 42 65 71
-0.025343 3.603956 -3.140964 109 110 115
3.034495 3.130642 -3.793780 235 218 181
0.213977 4.446672 -1.887457 32 45 50
3.130837 3.344726 -3.475745 225 194 152
0.462027 4.253977 -2.114979 26 40 47
2.678837 3.634094 -3.205334 203 168 120
2.400706 3.986946 -2.561149 228 203 165
-0.021508 4.792002 -1.085774 199 151 95
1.883844 3.210773 -3.930572 233 206 172
-2.176391 3.927305 -2.862551 230 198 163
1.652588 2.780256 -4.528548 225 202 164
-1.139855 4.698153 -1.658847 227 189 138
2.227669 4.024827 -2.728441 191 154 105
-0.403092 4.502305 -1.705369 51 63 79
2.144165 3.763187 -2.956967 216 188 147
2.035251 3.957982 -2.828193 225 202 155
0.610976 4.064321 -2.426336 50 61 69
1.415802 3.710304 -2.901384 176 182 175
0.398098 4.255959 -2.091560 29 40 45
1.084766 3.580890 -3.177761 132 145 173
3.504096 8.806562 -3.369043 34 47 56
0.640592 3.427252 -3.752638 221 200 163
0.704764 4.021922 -2.504791 43 54 63
0.521099 4.033470 -2.303498 45 67 76
3.098822 3.461787 -3.321038 224 193 151
0.468663 4.008154 -2.510722 107 118 121
2.828211 3.055839 -4.039560 204 180 141
2.648429 3.714086 -3.129917 220 192 150
0.558966 4.187318 -2.235079 32 43 48
2.648876 3.712180 -3.129502 220 192 150
2.354404 3.640201 -3.158074 225 195 153
1.541615 3.666151 -3.320372 203 175 135
0.953661 3.933784 -2.599526 107 125 133
-1.190372 3.999088 -2.842736 247 217 181
0.776167 3.758749 -3.002107 48 71 87
-1.298674 4.158353 -2.289675 209 173 132
0.229870 4.160848 -1.972949 91 112 122
-0.614512 5.147954 -2.592709 111 117 121
2.844278 2.884428 -4.123424 228 204 167
-0.079460 5.037354 -3.127207 188 167 145
0.936102 3.658814 -3.304528 50 87 113
-1.147778 4.749162 -1.559556 233 194 144
0.964487 3.683286 -3.053427 73 88 96
-0.739040 4.931701 -1.891756 198 149 86
0.714233 3.854446 -2.872560 45 66 74
-0.682238 2.914898 -2.532124 104 121 126
-3.849523 3.618689 -3.195460 189 158 125
-0.762576 4.512363 -1.845300 90 75 57
-1.229312 3.310696 -3.723874 209 192 177
-0.153984 4.989995 -1.143321 206 153 95
2.369785 2.671581 -4.659480 223 204 164
-0.453723 3.202209 -1.561378 34 48 52
1.211256 3.324744 -1.984280 0 0 0
0.798386 4.097610 -2.320738 106 114 120
0.669303 3.914279 -2.582325 43 66 75
1.670398 3.525000 -2.350164 239 214 187
0.222340 4.153201 -2.551311 39 61 73
-2.323380 4.004001 -2.609029 228 194 159
-0.664193 3.967428 -2.520449 196 180 147
-2.314915 4.007701 -2.600102 193 157 122
2.929217 3.232981 -3.746697 238 214 176
-2.124632 4.583648 -1.771293 201 166 114
2.017378 2.810012 -4.529875 206 180 145
-1.636088 4.737829 -1.507046 212 174 128
2.333203 3.499334 -3.475144 241 217 179
-1.379698 4.741156 -1.740007 238 202 152
2.455296 3.724312 -3.092979 221 191 145
-1.409953 4.634888 -1.720362 238 202 152
2.080577 3.625095 -3.279624 235 211 167
-1.166655 4.851486 -1.483971 211 170 121
1.127433 4.016591 -2.410353 46 66 76
-1.107176 4.695805 -1.550563 232 194 147
1.026706 3.852916 -2.593700 44 69 76
-0.373110 4.328926 -1.981933 104 119 131
0.459853 4.043156 -2.459975 42 66 75
0.630970 3.865267 -2.726694 111 130 135
0.311985 4.181524 -2.263386 38 63 78
3.456468 3.603601 -3.010493 178 139 91
0.689047 3.957186 -2.636698 47 63 68
3.286529 3.313994 -3.486123 220 198 150
2.480449 6.518287 -3.415849 16 29 36
2.959785 3.164572 -3.791578 239 215 178
0.149889 4.979085 -1.206113 52 66 82
1.710145 3.953338 -2.582290 44 52 58
1.783589 4.782832 -2.731200 106 117 124
3.052236 2.937183 -4.061258 233 206 162
3.408949 3.631002 -2.990628 179 145 91
3.230786 3.363175 -3.487648 225 195 154
-0.806389 1.692411 -1.463248 27 30 39
3.064462 3.342384 -3.514993 193 162 121
0.044221 4.464652 -0.824585 214 176 126
3.012497 3.374286 -3.467991 226 196 149
0.683486 4.102210 -2.309792 44 54 57
2.959082 3.377995 -3.441631 195 160 119
-0.589504 3.841841 -2.724471 213 183 152
2.695425 3.552693 -3.252743 193 162 119
-0.565932 3.205475 -2.686205 100 99 95
0.866866 3.747693 -3.119086 52 75 92
3.174221 5.224130 -0.411632 215 187 152
0.866866 3.747693 -3.119086 52 75 92
3.231027 5.279730 -0.415769 215 187 152
0.757944 3.760569 -2.896311 42 63 75
0.847927 3.948017 -2.508561 30 51 62
-1.777404 3.773585 -2.989897 211 176 141
0.696206 3.787477 -2.730957 29 52 67
0.590355 4.011239 -2.432741 78 99 108
-0.380147 4.368734 -2.010954 88 119 129
-0.474626 3.822334 -2.514455 105 100 86
1.175430 2.539087 -1.500358 25 35 41
0.971319 3.807668 -2.862184 48 59 61
0.629196 3.832232 -2.826865 86 102 108
-2.265481 4.409109 -2.075085 235 203 157
1.396195 3.067582 -4.224600 208 178 134
-1.234919 4.638477 -1.604982 204 161 108
1.712319 3.856639 -2.535588 46 54 61
-0.151066 4.116385 -2.059260 35 44 50
-0.124853 4.381392 -1.717522 68 92 99
3.817372 6.261739 1.632856 189 148 96
1.088678 2.574987 -1.340420 183 166 124
3.169430 3.468668 -3.374540 203 174 120
-0.784811 4.038068 -3.099993 222 195 163
0.906467 3.805633 -2.863343 47 68 81
-0.150541 4.381939 -1.832259 94 106 112
3.423389 3.721371 -3.033566 181 143 83
3.049431 3.135717 -3.777343 206 181 143
0.700662 4.230848 -2.125398 18 38 42
3.221512 3.544968 -3.153670 193 162 105
1.113772 4.011052 -2.468373 44 57 59
1.146410 3.497622 -3.528907 212 181 145
4.597970 6.699084 2.716910 181 137 88
-0.520047 4.255845 -2.117775 172 212 218
-1.600689 3.856245 -3.146341 241 212 180
0.779501 3.752927 -2.946359 65 76 81
-1.534124 3.793270 -3.156697 218 189 157
1.650901 3.916573 -2.676848 171 176 174
-1.226957 4.333953 -2.377106 230 196 159
1.378723 3.858019 -2.598488 71 97 105
-1.654079 4.717472 -1.516099 231 193 148
0.647413 3.843379 -2.473893 40 61 74
-1.075316 4.682433 -1.672382 206 168 114
0.310993 4.069807 -2.561478 46 63 72
-1.152053 4.782455 -1.490738 236 198 149
1.408269 2.278226 -1.452486 88 108 111
1.388971 2.284187 -1.432846 92 107 110
0.598369 3.999630 -2.538087 37 53 56
3.232817 3.229245 -3.641805 222 189 145
1.227193 2.381011 -1.351364 186 164 117
2.076696 5.797033 0.415213 198 162 116
-1.065738 4.269116 -2.253284 92 86 78
-0.234343 2.492504 -1.673515 162 158 156
3.237095 3.277120 -3.501136 223 193 140
2.489177 3.664555 -3.146924 234 201 155
1.688532 5.959832 0.682804 227 187 137
2.489307 3.664927 -3.147559 234 201 155
1.681580 3.434342 -2.267319 48 39 31
1.633820 3.207692 -3.960342 232 207 174
0.186432 4.134718 -2.349269 62 83 86
3.317423 3.301272 -3.511432 229 197 147
5.282522 6.747720 3.020640 179 132 85
3.252982 3.291101 -3.527703 224 193 142
0.564975 3.988911 -2.521659 41 60 59
3.264050 3.321905 -3.465055 225 197 140
0.657593 3.947758 -2.596309 42 58 64
2.539167 2.677177 -4.733026 194 168 132
2.844864 3.492491 -3.355160 207 174 125
0.365502 4.151338 -2.334250 37 54 57
2.844965 3.492373 -3.355179 207 174 125
0.683435 4.072389 -2.452414 19 37 42
2.748841 3.544047 -3.243152 224 192 139
0.695589 4.087643 -2.458644 19 37 42
2.320082 3.302232 -3.774291 240 214 179
0.394544 4.357541 -1.912867 8 22 31
1.745502 3.915138 -2.534401 48 59 56
1.401987 3.362137 -2.909150 121 142 161
1.311913 4.272444 -2.135832 93 64 31
-1.190128 4.588315 -1.842017 198 153 98
0.784612 4.024623 -2.357245 62 84 93
-0.401528 4.502279 -1.701858 52 70 87
3.247438 3.318692 -3.483760 233 202 151
0.239327 4.524405 -1.639018 35 54 70
2.755890 2.747528 -4.505757 184 159 116
2.752142 2.771086 -4.527316 184 159 116
2.564294 3.016498 -4.143017 206 180 144
1.635263 3.796934 -2.587304 243 209 175
2.412367 3.233003 -3.828974 212 185 145
4.653566 6.440457 2.195894 180 140 89
2.101863 3.678805 -3.183151 234 206 161
-1.348867 4.451735 -2.081245 211 170 121
1.337714 3.173167 -4.462353 203 174 135
-0.254565 4.332690 -1.944715 35 48 55
1.691462 4.017754 -2.574607 115 117 119
0.546372 4.098588 -2.450284 47 62 69
1.047150 3.445302 -3.023688 60 83 95
0.197974 4.350408 -1.931027 0 0 0
1.047150 3.445302 -3.023688 60 83 95
0.662907 4.246292 -2.103766 37 52 65
1.075829 3.439956 -2.842872 94 114 127
1.164447 3.923747 -2.590961 55 71 74
0.843467 3.674793 -2.960204 84 106 118
0.925405 3.817164 -2.682443 91 108 115
0.808576 3.642759 -2.909504 50 73 87
0.882263 3.963762 -2.427931 107 127 136
-0.507856 2.122427 -0.541610 227 205 172
0.422369 3.908272 -2.619679 88 110 125
-1.611759 3.654052 -3.389753 191 166 145
5.365706 5.682451 0.871781 206 171 136
-3.992346 3.867127 -2.834822 183 158 125
1.079916 4.855870 -4.102107 181 169 145
3.091013 3.665218 -3.008775 190 155 102
-0.172069 4.282834 -2.140321 96 112 123
2.817543 2.733988 -4.409782 227 204 165
1.594327 5.763981 -2.693863 91 103 107
0.426100 3.551340 -3.619029 96 104 103
-1.632555 1.869059 -0.860844 0 0 0
-0.482970 4.020294 -2.910040 206 189 164
1.527828 2.200153 -1.529394 96 117 123
0.162169 5.150285 -0.806459 191 149 99
3.267620 3.208061 -3.668984 222 190 139
0.162169 5.150285 -0.806459 191 149 99
3.207863 3.408726 -3.545051 226 190 139
3.205814 3.416014 -3.547343 226 190 139
1.597965 3.278737 -1.101171 143 146 138
2.499975 2.926228 -4.235178 209 184 142
-2.468353 4.440958 -1.929277 228 191 145
2.694531 3.720662 -3.038412 206 173 118
-2.132213 4.328663 -2.228897 236 203 161
2.694531 3.720662 -3.038412 206 173 118
1.958861 2.834498 -4.383096 232 208 172
-1.194970 4.488194 -1.864210 222 177 115
1.784286 3.977077 -2.494121 91 91 83
-1.207124 4.636238 -1.544120 206 168 114
0.920180 3.966967 -2.286198 33 57 65
-1.052150 4.577042 -1.658325 208 167 112
-0.399465 4.273528 -2.030524 99 189 122
2.842278 2.690803 -4.407022 230 206 166
2.932631 2.867465 -4.175398 228 205 165
0.133163 4.351592 -2.086693 23 33 43
2.427722 2.746784 -4.559768 204 176 139
0.035382 4.338170 -1.914133 120 130 137
2.731937 3.503466 -3.203436 222 191 133
1.433490 4.140704 -2.507791 69 93 97
-0.464026 5.233473 -0.632690 202 161 110
1.414956 3.789662 -2.510027 34 55 69
0.450677 3.536203 -2.452888 100 115 120
0.850291 3.892990 -2.669310 71 92 102
-0.057765 4.204050 -2.207289 41 69 77
0.219204 5.304228 -0.797119 193 149 100
-0.174251 4.332109 -1.804798 71 94 98
0.418219 4.106700 -1.690022 105 120 135
3.262217 3.369763 -3.489740 225 196 136
0.705821 5.417939 -0.082112 226 188 137
3.240899 3.274929 -3.476164 202 168 111
3.137981 3.567143 -3.155569 228 199 145
4.238550 5.565115 -0.014784 211 182 148
2.418204 2.735069 -4.497919 194 169 128
0.959389 3.723619 -2.943735 79 110 119
2.312668 2.800044 -4.370570 232 203 171
1.780370 4.121056 -2.513401 49 70 85
2.295542 3.532037 -3.452255 236 216 176
2.250966 3.548561 -3.243297 207 178 134
1.487422 3.149439 -4.427710 235 211 175
1.487422 3.149439 -4.427710 235 211 175
1.732693 4.002011 -2.585227 45 63 64
2.233075 4.009684 -2.725800 192 153 98
-0.074852 3.243649 -0.369191 58 58 57
1.586479 3.540131 -3.291527 232 202 166
0.857758 3.679749 -3.379412 118 139 165
1.203042 3.954616 -2.459518 41 61 70
1.439050 4.099928 -2.398672 114 144 165
0.390746 3.886084 -2.538853 82 104 118
-1.730165 4.905503 -1.133550 197 151 105
-0.499586 4.327865 -1.955595 152 195 243
0.114869 5.397685 -0.311742 147 114 76
3.438846 3.565133 -3.098114 214 181 125
2.950425 3.224477 -3.797634 212 192 149
0.660522 2.912061 -0.819044 78 91 93
2.507087 2.658376 -4.733095 192 168 131
2.597128 2.852375 -4.362764 204 177 135
2.780282 3.242016 -3.757827 242 222 183
3.087179 3.661126 -3.033123 215 179 125
2.407332 3.224011 -3.795559 237 212 176
2.847381 3.916838 -2.717058 223 187 141
2.335473 3.288878 -3.668799 215 191 156
0.660367 4.074178 -2.361738 105 121 128
2.308836 3.472179 -3.455424 220 197 158
1.879195 3.034050 -4.296110 206 178 140
2.326018 3.801540 -2.900988 227 193 143
2.319019 3.835711 -2.914619 227 193 143
1.828758 3.954930 -2.595430 122 107 92
1.621737 3.597005 -3.373783 208 180 142
0.710194 4.187848 -2.171765 129 149 157
1.400194 3.783498 -2.863548 205 241 254
0.877183 3.663376 -3.030588 55 76 91
-0.456154 4.254747 -2.190654 92 122 125
0.892876 3.619654 -2.920393 45 67 79
-0.288060 4.827116 -1.480322 96 71 52
0.319773 3.092219 -3.960874 206 181 149
-0.766857 4.466405 -1.814453 73 69 61
0.690676 3.775747 -2.894185 55 74 90
0.471457 3.895811 -2.636875 67 81 92
0.690533 3.746817 -2.901305 92 114 127
0.663611 3.804628 -2.577897 26 53 62
-0.535254 4.285228 -2.083260 63 128 103
0.641620 4.148813 -2.268176 24 38 46
-1.158242 4.290794 -2.228426 199 176 157
0.326004 4.784473 -1.929370 27 44 52
0.784274 3.748400 -2.950890 90 108 119
0.211638 4.281360 -2.044161 27 39 45
1.064048 3.223723 -4.040760 201 167 123
-0.166402 5.065971 -1.061883 192 149 85
-1.457432 3.530513 -3.064756 204 179 153
0.429450 4.174150 -2.275080 43 55 62
-0.261665 3.824878 -3.099440 211 193 161
0.323325 4.435852 -1.854479 14 31 44
1.489512 2.286136 -1.572103 89 111 122
2.413257 3.145345 -3.953604 211 182 150
0.936837 3.954827 -2.457377 108 122 127
2.535848 3.271375 -3.765367 209 184 146
1.471857 3.297624 -2.209385 91 72 55
2.521860 3.688233 -3.072011 231 198 146
-1.795235 4.853902 -1.406212 227 192 145
-0.984064 4.257986 -2.030073 179 147 103
-1.322026 4.691748 -1.462909 229 191 140
3.457527 3.600788 -3.010285 179 141 90
-0.544146 4.585516 -1.626068 87 67 50
2.749945 3.546751 -3.242982 227 190 134
0.335977 4.908737 -2.148136 36 49 56
1.360229 3.070427 -4.207592 183 150 114
-0.087902 4.522807 -1.687208 34 47 59
1.610590 3.595106 -3.414721 232 203 164
1.134701 3.971794 -3.116223 109 150 184
2.109957 6.306614 -3.330467 46 62 66
0.475163 3.904612 -2.683429 91 116 130
0.533446 3.925248 -2.491524 88 106 119
0.617108 3.908779 -2.675203 62 82 88
0.493964 3.993442 -2.509437 88 106 119
0.593200 3.881450 -2.662066 62 82 88
3.248160 3.238155 -3.624866 193 154 99
-0.175687 4.956314 -1.100194 186 139 76
3.153361 3.139390 -3.525712 229 192 144
0.460400 4.326954 -1.937384 32 50 61
2.360040 2.871886 -4.448272 147 119 88
1.569734 3.045408 -4.379636 233 209 173
0.823699 5.753070 0.228959 203 165 119
2.196915 3.641906 -3.090130 213 184 138
-1.639970 3.653141 -3.414270 193 166 139
1.737472 3.845299 -2.495357 58 68 75
-2.159185 4.386820 -2.066296 234 201 160
1.508685 3.919724 -2.774334 16 54 87
-1.156432 4.271744 -2.948029 218 189 159
1.147623 3.897864 -2.626526 32 51 57
-1.807998 4.814109 -1.344552 224 184 138
3.194044 -0.527636 -1.430466 45 67 77
-1.352376 4.446306 -2.107148 228 190 144
0.543671 3.800380 -2.705660 66 87 103
0.422075 3.869736 -2.615330 63 86 102
-0.143398 4.411026 -1.973653 125 135 143
0.411277 3.887834 -2.618570 63 86 102
0.378650 4.102959 -2.353325 109 130 137
-1.145298 2.383578 -1.467804 92 103 108
-2.298651 5.231372 -0.634510 192 164 134
0.412570 4.128987 -2.342144 28 39 45
0.847035 3.708112 -3.001431 82 100 112
-0.185909 3.678022 -1.733140 22 36 45
0.583704 3.854481 -2.781205 89 107 120
1.301514 3.074425 -4.228792 208 173 131
1.553413 5.345931 -2.762226 101 113 119
1.425106 3.908602 -2.474108 0 0 0
0.842802 4.184467 -2.267251 114 126 133
1.589551 3.538915 -2.416181 72 99 107
0.819945 4.157080 -2.256841 114 126 133
1.242830 3.893852 -2.718061 85 109 125
1.166451 4.024986 -2.371781 111 130 142
1.608599 2.211694 -1.669433 37 63 86
1.234514 3.829391 -2.256485 113 131 149
-0.242701 4.346004 -1.927477 47 68 81
2.394100 2.760663 -4.555799 224 199 159
-2.140411 4.235527 -2.357139 212 178 131
2.427150 3.686243 -2.764450 202 167 115
-1.121817 4.358235 -2.235089 153 125 98
2.332724 4.021613 -2.543942 230 196 147
-1.070153 3.811015 -2.290157 163 145 120
1.335294 4.232709 -2.097597 163 128 82
-0.622528 4.876277 -2.593745 111 119 125
3.155951 3.316892 -3.535492 203 164 108
-0.339647 4.683205 -1.449782 77 66 60
2.164786 2.765926 -4.461062 208 182 145
0.209344 4.173888 -2.283671 124 134 142
1.872940 3.618527 -3.272726 241 218 177
0.387564 4.069523 -2.436762 104 117 121
1.806313 3.961633 -2.521232 102 98 107
0.747348 4.066546 -2.397849 46 65 78
-0.463548 4.970404 -0.690902 205 165 111
0.713584 4.132394 -2.190415 32 56 63
0.911045 3.712033 -2.976186 73 94 101
2.421543 2.801673 -4.381299 227 198 159
0.973090 3.963427 -2.610484 133 146 152
2.247076 2.775695 -4.466335 202 171 125
2.060129 2.668977 -4.513392 203 173 133
1.042701 3.971010 -2.533782 123 137 142
2.741802 3.595310 -3.263375 227 190 134
1.791673 4.012897 -2.495520 185 164 134
0.200533 5.205391 -0.606658 219 179 135
0.955151 3.812337 -2.765673 30 46 59
0.210428 5.210740 -0.436157 201 156 113
0.998178 4.031619 -2.292735 83 102 107
-0.707498 1.991862 -0.534482 131 132 124
0.717364 4.169342 -2.169606 101 122 128
2.501506 5.868712 0.634436 230 192 150
-0.565591 4.021569 -2.573426 99 119 134
-1.458287 3.546454 -3.627986 181 158 135
2.412867 6.023594 1.149199 191 149 100
2.868183 2.871910 -4.307128 200 170 125
2.952043 5.802577 0.698559 228 193 150
3.237895 3.257076 -3.466172 204 167 111
2.787984 6.174480 1.525374 214 173 126
2.817502 3.824595 -2.709136 198 163 111
0.897765 4.622232 -3.924845 105 108 106
2.062972 3.282208 -4.023409 228 201 162
2.823155 6.215690 1.398626 211 169 123
1.886991 3.012100 -4.278507 206 178 138
3.470425 5.758760 0.460822 203 171 132
2.490071 3.765582 -3.010484 228 196 144
2.429566 6.065610 1.311863 200 155 110
1.457774 2.907034 -4.221201 198 168 126
2.205242 5.784027 0.339033 206 168 122
1.508211 2.976333 -4.054182 210 185 145
1.296663 3.778058 -3.007381 161 173 176
0.469869 4.472658 -1.699428 62 90 104
1.179517 3.968033 -2.486781 83 101 107
0.749809 4.058259 -2.267757 44 60 63
1.059294 3.924423 -2.515661 83 99 108
1.198436 4.224374 -2.483074 37 53 56
0.917003 3.806360 -2.764598 86 101 109
0.956839 3.945297 -2.388863 89 104 113
-1.069902 4.642801 -1.779474 218 172 115
0.592737 3.832091 -2.810459 50 74 90
-0.305843 3.401993 -1.964728 27 38 43
0.675251 4.134905 -2.043612 97 115 129
0.448595 4.049675 -2.452525 39 49 50
1.311213 3.988746 -2.393371 77 98 111
-0.633503 3.087092 -1.794816 38 52 58
3.032487 3.101163 -3.885048 149 125 77
2.308420 2.810136 -4.438107 163 145 113
2.490291 3.582783 -3.280045 204 166 119
0.676427 4.212716 -2.155035 23 44 53
0.824602 3.833272 -2.810308 30 51 60
1.000801 4.024312 -2.385545 44 59 69
-2.068856 4.146992 -2.477805 210 178 133
0.227091 4.024322 -2.387946 39 61 66
-0.371981 3.648641 -2.780399 104 121 129
1.412702 2.277305 -1.459481 94 108 109
-0.007061 4.425817 -2.014862 28 44 50
1.521272 2.220592 -1.594670 46 73 89
-0.031167 4.262537 -2.056538 51 59 69
-0.416234 3.839718 -2.725495 206 189 169
0.121065 4.259813 -2.016652 38 47 57
0.205572 4.814457 -1.140045 180 150 109
0.398907 4.634874 -1.468040 165 158 152
-0.131988 4.390976 -1.665102 50 70 78
1.298206 4.181622 -2.169026 29 34 50
3.152122 3.242019 -3.575560 229 191 136
2.952057 3.356811 -3.434858 210 172 116
1.632383 2.809849 -1.945456 92 78 61
3.057760 3.624249 -3.080999 205 171 118
-1.621034 4.063655 -2.794571 248 221 183
0.550179 3.895200 -2.720293 47 68 80
-1.271040 4.103525 -2.331072 232 200 165
0.909016 4.485265 -1.753150 176 139 94
-1.135820 4.274169 -2.274869 211 177 138
-4.835675 5.157231 -0.621767 187 158 125
-1.157125 4.781363 -1.539810 234 194 145
2.490067 3.501494 -3.406886 235 208 156
1.098842 5.698559 -2.201478 78 93 103
-0.214419 3.320876 -3.969844 200 177 151
0.446873 4.080356 -2.246102 46 68 78
-1.352095 0.950693 -0.725454 150 154 149
0.224070 4.241240 -1.969959 36 59 68
0.039203 4.188872 -1.567915 85 110 122
-2.051413 3.840848 -2.981716 198 169 134
3.348341 3.285465 -3.532430 233 197 142
-1.487837 4.166885 -2.439804 212 182 139
3.063497 3.335188 -3.487402 228 192 137
3.321427 3.626689 -3.015771 212 176 135
2.811458 3.683131 -3.073632 207 174 117
0.530406 4.827787 -2.663818 104 123 132
2.302827 3.503167 -3.438170 241 214 171
-2.617442 0.105706 -0.708438 17 40 55
1.566457 3.053457 -4.386764 233 209 173
0.604599 4.272114 -2.045013 18 40 51
2.082282 3.630631 -3.285596 238 211 168
2.408336 3.989628 -2.636153 209 179 127
0.590739 4.619699 -1.654262 90 113 128
1.514579 3.511686 -3.683087 213 186 150
1.057722 3.654224 -3.204396 116 142 173
0.990029 3.843360 -2.761941 49 69 77
1.334871 4.021259 -2.390317 86 106 119
0.301781 3.987421 -2.617935 96 116 127
0.865875 5.313531 -3.848724 104 124 131
-0.011111 4.443092 -1.757387 53 72 83
0.773957 4.167365 -2.233835 2 16 24
-0.443221 4.250381 -2.073460 177 231 241
-0.615227 4.598561 -1.720852 50 36 20
3.422927 3.472597 -3.228335 224 186 135
-0.586363 3.972197 -1.754045 0 0 0
3.368054 3.419183 -3.318764 234 202 146
2.655675 3.585828 -3.187696 227 192 138
-0.033752 4.560618 -1.563707 36 48 62
2.404777 3.408636 -3.523463 219 192 149
2.431279 3.499091 -3.336910 236 207 161
2.479609 3.726825 -3.063365 229 197 145
1.317290 3.081058 -4.402215 203 179 142
1.153738 3.090098 -4.150970 202 179 145
1.114296 3.215520 -4.058828 219 194 155
0.533246 4.037942 -2.488096 31 47 51
1.419611 3.612392 -3.474294 232 205 164
0.487597 4.147931 -2.291383 37 50 54
1.228038 3.476252 -3.571970 233 208 168
0.487338 4.148223 -2.292075 37 50 54
0.944977 3.340530 -3.974938 224 195 159
0.361074 4.295726 -2.034508 23 40 45
0.924329 3.377432 -3.995116 224 195 159
-1.597786 4.119677 -2.639861 211 182 146
1.172039 3.515342 -3.577784 209 181 144
1.748872 3.918358 -2.579859 150 142 125
-0.351639 4.517088 -1.646780 52 73 90
1.177988 3.971749 -2.487368 79 96 101
-0.493922 5.258708 -0.709550 207 167 116
0.806383 3.917284 -2.620566 95 114 122
0.060623 4.423309 -1.893662 29 41 52
0.832115 4.202228 -2.146149 85 105 120
0.704216 4.008124 -2.551334 103 118 122
0.490249 4.024664 -2.424149 120 136 146
0.922269 5.178829 -1.766661 102 120 141
0.457800 4.011774 -2.350782 46 66 75
0.598561 4.309574 -1.905277 89 114 126
-0.008631 4.348057 -2.057143 46 66 76
0.685804 5.278833 -0.397003 223 188 144
-0.052579 4.197714 -2.357808 89 109 122
1.877650 5.675815 0.489754 200 162 115
2.450509 2.650507 -4.654789 204 175 131
1.430279 2.298329 -1.692929 104 90 74
2.446805 2.833085 -4.422287 202 170 126
3.035773 3.283781 -3.401198 206 167 104
-0.183011 4.458573 -1.767930 44 62 68
2.254948 3.336342 -3.772725 219 190 147
-0.271532 4.527561 -1.543621 56 67 88
1.430810 3.865597 -2.621112 64 83 94
-1.125714 4.299407 -2.174542 99 97 95
2.176421 3.607913 -3.368308 240 211 163
2.167104 4.101355 -2.527569 210 178 124
0.575588 5.634467 -0.071679 212 173 128
0.270780 4.140798 -2.302345 47 65 75
-1.219612 4.238180 -2.384211 232 201 165
-0.918978 6.131080 -2.065137 40 60 73
-0.183472 4.682220 -1.507988 85 106 121
0.422350 4.330003 -2.656640 115 130 143
2.968116 3.320664 -3.303456 214 174 117
-0.368855 5.221656 -0.719566 228 188 138
1.589625 3.551487 -2.745052 156 154 139
-1.535694 1.482466 -1.225117 33 50 58
0.795514 3.712588 -2.892776 35 53 63
1.964301 4.867218 -2.481956 163 164 167
0.726887 3.781230 -2.867675 40 61 69
0.766831 4.060889 -2.364195 66 86 94
0.687844 5.620446 0.145572 190 146 98
-0.188258 4.258172 -2.135789 91 113 129
-1.777260 3.858847 -3.642857 214 187 154
2.807005 3.702876 -2.818987 210 179 132
-2.222402 4.386415 -2.091371 207 171 130
2.494708 3.657321 -3.161416 240 207 151
-1.959325 4.409765 -2.090246 214 180 130
2.233189 3.593151 -3.102011 207 174 119
-1.681010 4.820184 -1.298743 196 152 107
2.174042 3.803220 -2.935551 226 192 142
-1.677219 5.006191 -1.075556 194 152 106
1.715100 3.549892 -3.444955 220 191 149
-0.791203 4.125600 -2.528028 177 158 139
1.960148 4.277727 -2.210465 199 168 122
-1.140799 4.843807 -1.490584 233 195 147
0.616046 3.567530 -3.647979 172 157 144
1.032589 3.826805 -2.728250 34 56 62
-0.061033 4.336349 -2.081677 34 43 56
0.817369 4.156760 -2.173438 83 100 109
-0.649086 5.249339 -0.507960 206 166 119
0.088803 4.238986 -1.757344 90 106 117
1.677230 3.986169 -2.553455 60 85 104
-0.415892 4.295021 -2.018079 133 217 197
0.667877 5.595423 -0.017826 229 186 141
0.675088 3.704287 -2.935273 82 107 121
0.856345 3.850400 -2.797400 50 64 73
2.094910 3.128404 -4.029896 207 171 121
2.302161 2.824695 -4.408274 229 197 147
0.429037 3.937003 -2.658633 93 115 122
1.509135 3.775189 -2.670974 72 89 98
-1.000339 4.614205 -1.783925 190 141 80
-0.117935 3.358714 -3.885819 211 186 154
0.711905 3.803212 -2.840026 25 50 54
-0.177023 3.451716 -3.953751 211 186 154
1.862635 3.903291 -2.495870 216 187 144
-0.097329 3.764442 -3.026813 80 90 107
2.225887 5.669592 0.323003 209 171 128
1.024338 3.651819 -3.275422 218 201 180
-0.295799 4.321087 -2.006760 40 55 66
-0.144425 4.300660 -2.008636 44 65 80
0.007563 4.490337 -1.696850 48 68 76
0.419757 4.288348 -2.100909 38 51 55
0.437760 4.401729 -1.991798 41 62 72
-1.647451 3.634156 -3.399844 198 172 145
0.227870 4.388580 -1.786337 48 67 77
0.251649 4.372291 -1.748953 50 69 83
-1.225306 4.809325 -1.462472 234 195 148
2.940019 2.977212 -4.050601 224 194 143
-0.370494 4.358306 -1.849872 41 57 63
3.033141 3.109276 -3.837430 239 207 155
-0.284454 5.474720 -0.809380 235 201 151
3.431563 3.477443 -3.217910 187 147 92
0.095487 4.515258 -1.624563 29 44 56
2.237561 3.075145 -4.109191 206 179 126
1.207850 3.518458 -3.584291 230 201 160
0.131884 5.476277 -0.216314 192 148 100
1.509931 3.522242 -3.687769 214 185 145
0.100738 3.743668 -1.470498 43 44 55
1.088521 3.176889 -3.804437 204 178 142
1.806248 3.855399 -2.480761 80 64 42
0.181473 3.343448 -3.802779 234 216 189
-1.627994 3.858310 -3.122651 243 214 182
1.087766 4.001708 -2.461366 32 52 58
0.717435 4.176540 -2.169458 126 144 152
-0.021140 3.654504 -3.077333 108 126 134
0.326027 4.033884 -2.611451 92 113 128
-0.166614 4.398098 -1.713036 28 41 53
0.156361 4.283490 -1.993407 82 98 109
2.951573 8.325016 -3.205580 41 50 56
0.109224 4.184793 -1.482295 63 87 105
0.481599 4.046913 -2.405893 36 50 58
1.277309 3.057104 -4.253257 197 163 120
0.316098 4.307511 -1.961534 26 40 47
2.610355 3.605585 -3.219295 207 169 113
0.003580 4.563792 -0.718880 204 181 140
-0.292986 4.505187 -0.473813 211 189 156
-2.104666 3.971713 -2.750508 185 151 120
3.399346 3.531636 -3.153539 198 155 102
-2.408995 4.407393 -1.888902 206 168 121
-1.791627 3.879149 -3.050888 198 172 140
-2.086386 4.435768 -1.907511 209 172 122
2.275226 2.735406 -4.629145 227 204 164
-2.086642 4.520086 -1.708018 234 200 153
0.742675 3.839841 -2.741522 83 103 117
-1.645027 4.299402 -2.290849 236 206 162
2.791113 3.118353 -3.956524 211 177 126
-1.032259 5.492409 -2.171783 239 207 152
2.397337 2.720738 -4.677137 211 180 133
2.623428 3.113212 -3.932024 217 183 132
1.737739 3.993273 -2.455500 93 90 71
-0.569378 4.501798 -1.622787 95 96 101
0.354937 3.526832 -3.527850 216 192 173
-0.351888 4.284226 -2.085400 165 227 177
2.709718 3.673530 -3.031302 208 175 118
-0.646454 5.291970 -0.646258 203 166 118
2.231181 3.875931 -2.843081 226 194 144
-0.243140 4.751300 -1.383047 65 51 43
1.953571 4.106496 -2.520124 206 171 123
0.143055 3.588730 -2.447430 10 30 40
1.744831 3.998742 -2.580215 60 56 53
-0.731473 4.181520 -2.739275 203 185 156
3.359037 8.063048 -3.418818 9 24 31
3.039251 3.031699 -4.125728 229 193 136
2.430093 2.845187 -4.799141 226 197 154
0.058205 3.285429 -1.817768 13 35 46
2.824810 3.470702 -3.378223 209 170 114
2.009896 2.746664 -1.789719 95 87 73
2.155509 2.956703 -4.254491 232 205 163
2.009896 2.746664 -1.789719 95 87 73
1.751143 3.067015 -4.244977 207 176 133
-0.006692 5.129994 0.008500 209 164 115
1.088007 3.284113 -3.933606 212 182 143
-0.938088 2.637815 -1.101014 152 150 129
1.429237 3.590409 -3.384117 241 209 165
0.926747 3.973172 -2.404682 40 56 64
0.339849 4.116008 -2.366383 35 55 65
-0.994948 4.634755 -1.793343 182 146 102
0.580769 4.101455 -2.367078 18 38 42
2.806807 2.992892 -4.073444 143 129 87
2.640758 3.594939 -3.172191 224 190 129
2.766360 3.817398 -2.843357 237 204 157
1.646787 3.001928 -4.411097 230 209 170
5.320173 7.317767 1.735837 223 193 148
2.385107 3.602793 -3.246661 202 164 109
1.416865 2.976745 -4.443467 231 206 170
2.014500 3.495293 -3.521067 214 184 139
0.059548 4.232059 -0.711406 220 189 150
2.382075 3.988011 -2.484832 205 172 127
4.856155 5.870961 0.176627 212 182 143
2.365826 4.077385 -2.501385 205 172 127
4.856155 5.870961 0.176627 212 182 143
1.547285 3.635795 -3.332341 236 202 159
-0.755531 3.933294 -2.527483 103 99 93
1.916201 3.897069 -2.735814 217 178 124
0.939363 3.346328 -4.067069 227 195 157
0.482957 3.865135 -2.747570 114 135 150
0.575822 3.460095 -3.633041 120 131 154
0.227054 5.511041 -0.129443 180 134 90
1.133977 3.913947 -2.601925 89 108 118
-0.983485 4.711183 -1.788281 187 140 79
0.808560 3.706315 -3.019727 89 110 125
0.809265 5.171803 -2.897318 118 136 146
1.093638 3.937403 -2.556644 95 109 121
0.281548 4.479683 -1.686327 44 63 72
-0.000567 4.281101 -2.123227 89 108 119
2.972764 2.903697 -4.155931 196 164 112
-1.781790 4.796203 -1.344430 203 158 115
2.972863 2.905782 -4.157796 196 164 112
-1.244970 4.796459 -1.487075 215 174 123
3.106627 3.067248 -3.899693 229 193 130
0.767613 4.858649 -2.570943 36 49 54
2.831722 3.019871 -4.016095 210 175 129
1.354913 6.059296 -2.476022 45 55 60
3.136487 3.286687 -3.529650 238 201 141
0.167933 4.726335 -1.225686 29 39 51
0.959965 3.576002 -3.288386 71 82 103
1.744995 3.976671 -2.507989 52 77 83
0.977154 2.560312 -5.010734 200 159 113
-2.361617 1.718018 0.617765 44 73 76
0.721425 2.949040 -4.433643 240 208 160
0.942076 4.202641 -2.331315 0 0 0
1.607652 3.902821 -2.899274 223 184 142
1.248915 4.005641 -2.427743 74 95 103
0.362182 4.673856 -1.421752 91 86 83
0.521939 4.349730 -1.906976 37 54 57
-0.212415 4.591356 -1.545611 67 90 89
0.715691 2.942881 -4.468241 223 185 139
-0.441846 4.353120 -2.026731 74 172 208
0.774693 3.308088 -3.876235 229 195 146
2.551673 4.586380 -1.487005 221 201 166
0.039412 3.319651 -3.952705 200 162 117
2.068546 4.777473 -1.258868 190 167 131
1.063569 4.045879 -2.331778 0 0 0
1.676611 2.394835 -1.785244 112 120 115
-0.987559 4.132285 -1.509670 92 102 99
1.738104 4.091540 -2.517330 132 116 101
0.761500 4.091755 -2.364099 72 84 85
-0.472543 4.400824 -1.866853 2 30 32
0.166499 4.553244 -1.659534 41 54 60
3.881256 4.632158 -1.048243 174 149 110
1.044969 3.891336 -2.677153 77 90 94
-0.650525 3.947060 -0.840498 0 0 0
3.650577 4.657803 -1.098195 201 175 137
0.161271 4.564806 -1.546111 38 60 66
0.012938 4.312376 -2.048990 93 121 126
0.139679 4.773355 -1.293018 70 91 103
-0.005420 4.842221 -1.119617 206 175 106
0.824437 2.576493 -4.953352 203 162 113
2.282257 3.323685 -3.760039 236 209 164
1.207920 2.281513 -1.442025 93 100 106
2.505584 3.567183 -3.317442 233 195 145
-2.701546 4.727927 -1.528491 191 147 99
3.651942 4.741446 -1.185717 203 182 145
1.591897 2.834203 -4.543344 231 198 142
0.466613 2.726051 -0.829954 78 86 78
0.651600 3.293370 -4.252890 212 187 157
1.691378 3.875062 -2.563267 59 75 91
3.355025 4.437714 -1.662000 200 185 146
0.289792 4.262780 -2.015168 39 50 55
0.504231 4.021131 -2.570174 0 24 36
-0.126213 4.381359 -2.048928 101 116 129
1.063473 3.228428 -4.041168 204 172 116
-1.901950 4.722065 -1.280829 227 183 138
1.704717 3.804287 -2.488242 37 42 41
-0.586826 4.226939 -1.992081 41 125 204
-0.254404 3.337792 -3.937603 203 168 126
1.376530 4.211568 -2.302372 23 33 34
1.679675 3.871592 -2.498365 37 42 41
2.439031 4.519481 -1.887371 225 206 179
1.251118 3.884536 -3.179351 226 191 148
3.198789 3.584629 -3.123214 202 164 107
2.504583 3.720890 -3.164460 212 190 160
1.085877 3.928164 -2.587408 40 51 56
-0.104144 4.575073 -1.567939 91 113 117
2.736817 3.182413 -3.949207 0 0 0
1.785132 6.028303 -3.202131 111 122 126
1.329255 4.047541 -2.373328 55 74 89
0.585336 3.371810 -3.562297 89 104 119
4.229855 9.612575 -3.676162 102 114 119
1.591568 3.909360 -2.544681 69 89 96
1.874247 4.079310 -2.562450 192 167 139
0.972700 4.333950 -1.930577 168 155 135
-1.876177 3.951943 -3.005398 192 166 136
1.612400 3.655419 -2.514943 240 206 167
3.311706 3.620771 -3.028153 153 112 61
3.332942 4.233850 -1.972671 212 197 168
0.888805 3.495503 -3.351476 119 130 147
0.853988 4.209568 -2.159243 87 114 126
0.009245 3.004629 -4.411833 228 195 148
0.069942 4.409429 -1.809819 40 52 58
2.261146 3.610814 -3.259189 233 198 145
4.234468 5.340134 0.010764 230 203 164
1.148960 3.640978 -2.680940 19 42 53
2.255455 3.653634 -3.277339 233 198 145
-1.142286 4.306460 -2.253745 194 157 124
0.998216 4.004636 -2.485148 86 96 100
1.516285 3.247363 -3.844090 234 213 176
-0.198976 4.328178 -2.016434 25 41 54
1.916111 3.964300 -2.758683 198 160 105
0.207612 4.374557 -1.978558 80 95 100
1.732613 4.032833 -2.596237 58 45 39
0.062588 4.363301 -1.959682 26 42 50
2.936066 4.333417 -1.803403 191 167 129
2.829335 2.953091 -4.149006 205 179 130
-2.097692 3.967239 -2.775052 227 196 164
4.073488 3.696684 -2.659213 218 193 155
0.333398 3.020483 -4.341082 192 153 110
2.442218 3.572849 -3.368578 211 178 124
-1.208991 4.948289 -1.106616 212 174 118
0.060463 3.322497 -3.947304 233 198 155
-0.014654 4.490499 -1.586164 68 96 99
1.704181 3.862885 -2.965080 206 173 120
1.137539 3.872016 -2.634434 90 112 115
0.823214 3.817342 -2.826277 28 42 43
0.061425 4.258889 -2.002053 98 125 130
0.589335 3.457521 -3.769511 208 180 149
-2.639322 4.680886 -1.444760 191 147 97
3.006886 3.415297 -3.310488 220 199 172
0.662675 3.931932 -2.665046 98 109 119
0.851801 4.188063 -2.109776 17 40 58
-1.080429 3.743850 -2.206131 110 120 123
0.446929 4.102019 -2.435668 141 161 168
-1.090707 4.930513 -1.472922 239 204 160
0.370597 4.322124 -2.078485 41 62 72
-1.090707 4.930513 -1.472922 239 204 160
2.067338 4.570559 -1.669213 222 204 175
3.293615 3.193630 -3.688346 228 187 126
0.120680 4.390695 -1.904898 86 101 105
0.411469 4.533679 -1.576764 101 126 135
0.354405 4.494053 -1.707323 26 43 54
1.321198 3.823310 -2.650678 47 57 61
4.936108 5.227557 -0.158433 201 171 139
1.757610 4.832221 -1.232680 173 145 104
-0.598840 4.388262 -1.959083 60 96 119
1.138736 4.231595 -2.108757 26 41 40
0.369754 2.936637 -4.571417 216 184 133
-0.567610 4.305262 -2.028144 20 182 213
3.055376 3.706069 -2.949103 194 154 98
-1.692403 3.840564 -3.079491 207 178 147
3.901199 4.615074 -1.061192 174 148 109
0.552218 3.445214 -3.619466 108 100 92
0.882155 3.642082 -2.937046 108 150 158
-0.175226 3.364242 -3.860820 204 169 132
-0.544795 3.398287 -3.544544 250 223 187
2.420157 2.649330 -4.680311 230 199 157
-1.932919 4.705264 -1.325187 211 174 124
3.797738 4.594053 -1.077930 209 184 144
2.726470 3.091168 -3.998074 214 182 127
-1.910404 4.787513 -1.341846 211 174 124
2.728749 3.080483 -3.992354 214 182 127
-1.792669 4.832182 -1.541860 238 201 154
1.148395 3.887005 -2.648308 45 63 63
-0.377161 4.271897 -2.106948 146 194 139
1.737282 3.528390 -3.404683 238 207 169
-1.338901 4.270163 -2.398268 221 192 152
4.064288 3.573119 -2.890065 198 174 135
0.554095 4.292203 -2.004276 30 49 56
-0.368651 4.279176 -2.115819 146 194 139
2.137075 4.251069 -2.198169 220 198 150
-1.634262 4.828862 -1.557157 214 178 128
0.687065 3.475512 -3.705638 226 206 175
-1.609099 4.987981 -1.141211 205 159 112
0.765140 4.066926 -2.398075 26 37 44
1.381910 3.010769 -4.310092 214 183 138
1.154184 6.788729 -1.534258 0 0 0
1.857696 4.268379 -2.260279 197 167 115
-1.169840 4.875342 -1.547805 204 163 114
3.631702 4.627328 -1.183077 210 186 149
0.674810 4.160959 -2.368900 99 107 113
-0.430484 4.301558 -2.041395 90 158 72
0.945196 3.887801 -2.709278 45 64 75
-1.103951 4.702287 -1.648193 207 166 118
0.006476 4.312622 -2.117696 96 105 114
-0.430484 4.301558 -2.041395 90 158 72
3.606603 4.570920 -1.351544 220 203 170
2.416847 3.280408 -3.752634 213 180 140
-1.050324 4.563680 -1.640157 228 189 134
2.371480 3.644794 -3.119102 225 189 135
-1.243940 2.954880 -2.101373 172 161 146
2.417404 3.721847 -3.008179 232 195 142
-0.799154 4.538144 -1.898164 111 90 65
1.225095 3.414145 -3.701398 239 212 170
1.346019 4.129519 -2.254644 159 131 101
-0.168643 3.440745 -3.729198 225 194 160
0.854882 3.981337 -2.462819 35 56 65
0.062794 4.571114 -3.245132 112 107 102
-0.501372 3.226280 -4.073617 195 162 117
-0.300680 4.305320 -2.047431 108 135 140
0.708345 4.252140 -2.247679 45 57 69
-0.121644 4.563953 -1.551749 76 91 112
3.523122 4.048342 -2.219025 216 196 163
-0.145346 4.471724 -1.711825 44 57 63
0.175001 4.429492 -1.853393 49 69 80
0.667344 4.082573 -2.366176 100 114 120
3.291865 3.119324 -3.678713 201 158 99
0.443435 3.909797 -1.979736 108 126 134
2.808737 3.495298 -3.354082 228 189 129
-0.633600 2.803677 -1.387703 91 118 131
2.511959 4.285688 -2.000943 204 183 150
1.283215 3.815834 -3.076759 183 159 121
2.248770 4.426294 -1.412513 194 170 133
0.399767 3.929281 -2.601618 91 116 130
3.062861 5.833394 0.751088 209 170 132
1.963944 3.984656 -2.699739 203 170 120
1.119478 3.767033 -2.806485 121 147 157
0.552725 4.301137 -1.921748 36 60 72
-0.255553 3.898766 -2.882163 99 121 128
1.085894 4.242554 -1.761410 92 113 120
1.877316 4.394080 -2.010470 190 168 141
0.953173 2.551283 -4.984617 177 138 85
0.478587 4.368384 -1.888949 100 126 134
-0.465224 4.415377 -1.787634 60 88 102
1.305208 3.979636 -2.482766 101 123 133
0.252645 3.102323 -4.314813 189 153 107
0.996422 3.706486 -2.885464 110 155 171
0.825266 3.731289 -2.959653 0 0 0
-2.500322 4.770916 -1.454073 196 150 101
0.833594 3.921542 -2.663261 92 103 104
1.673052 4.032336 -2.524260 34 56 54
0.285554 4.163613 -2.275629 117 128 134
-0.105820 4.591529 -1.608198 1 19 30
-2.613218 5.302128 -0.143245 197 174 146
-1.077370 4.815844 -1.507116 240 203 159
3.393183 3.442980 -3.284635 201 153 98
-0.576213 4.539500 -1.671650 101 98 110
0.853027 4.432885 -1.855754 32 33 39
-0.282936 4.370062 -1.891605 1 31 44
3.067842 3.323583 -3.509799 205 161 105
4.439565 8.175022 -3.326651 175 176 176
0.558379 4.168905 -3.578311 121 139 166
1.522720 4.215795 -2.307116 27 38 60
3.063822 4.562731 -1.337704 223 202 164
0.478775 4.369918 -1.892066 66 80 85
-2.136134 5.102972 -1.111150 151 96 50
3.074555 4.309185 -1.894188 180 149 111
0.059907 4.405669 -1.889227 30 39 42
0.257222 4.341713 -2.163252 86 102 113
-1.594812 4.713153 -1.572127 237 198 152
0.471513 4.556004 -1.502312 0 0 0
0.225680 4.271491 -2.098448 43 64 74
-1.703008 4.883250 -1.120137 206 166 115
0.555969 4.353390 -1.908093 58 65 69
1.274811 2.255630 -1.421206 211 214 212
1.386259 3.886936 -2.606645 99 140 146
2.885582 3.084866 -3.933928 239 211 152
-1.244959 3.220236 -2.041177 117 127 127
0.693082 3.896785 -2.738529 88 104 113
1.429794 2.243349 -1.551208 208 214 208
0.515504 4.390440 -1.801770 72 91 104
-0.309433 3.294849 -3.953691 225 196 162
2.416804 3.545799 -3.329536 211 183 126
1.639631 3.894763 -3.010423 200 165 115
-0.306188 4.483854 -1.731519 27 44 51
-0.243446 4.364615 -2.007527 101 136 143
0.749498 4.248194 -2.029418 26 50 70
0.584628 4.473577 -1.722452 76 98 113
0.305321 4.420609 -1.807519 46 63 75
0.153325 4.479968 -1.666644 97 117 129
1.585403 3.980472 -2.519538 82 101 109
0.374335 4.406133 -1.808299 106 136 142
1.025630 4.037468 -2.397775 28 41 48
0.076754 4.358004 -1.734411 0 0 0
